x,y,z,r,theta,SPL [dB]
-195.9183673469388,71.42857142857144,-40.0,352.3164256839967,57.36482090751438,44.91404569266729
-195.9183673469388,71.42857142857144,-14.285714285714285,339.14106169131827,61.02571351094251,58.959472749444394
-195.9183673469388,71.42857142857144,11.42857142857143,327.45824867160354,64.96493680958709,38.43393846454645
-195.9183673469388,71.42857142857144,37.14285714285714,317.43282517821746,69.17402127484486,63.6669644314909
-195.9183673469388,71.42857142857144,62.85714285714286,309.2260360282873,73.63176459575634,56.424318094867516
-195.9183673469388,71.42857142857144,88.57142857142858,302.9856980032264,78.30252571846084,61.449630297128515
-195.9183673469388,71.42857142857144,114.28571428571428,298.83502808544523,83.13607707981171,55.28426813173161
-195.9183673469388,71.42857142857144,140.0,296.86169137621516,88.06958517832672,44.19942828835315
-195.9183673469388,71.42857142857144,165.71428571428572,297.109075227024,93.03182445639823,50.413654090075504
-195.9183673469388,71.42857142857144,191.42857142857144,299.57167812955794,97.949063257421,58.37774003744508
-195.9183673469388,71.42857142857144,217.14285714285717,304.19570521631846,102.75147640614456,62.23098788218191
-195.9183673469388,71.42857142857144,242.8571428571429,310.8847258813772,107.37874228447383,63.08114949054415
-195.9183673469388,71.42857142857144,268.57142857142856,319.5090726101789,111.7837843804965,59.00973908209303
-195.9183673469388,71.42857142857144,294.2857142857143,329.917006463271,115.9342488830959,62.44466822735226
-195.9183673469388,71.42857142857144,320.0,341.9457030096258,119.81195105310776,56.42797046769087
-195.9183673469388,91.83673469387759,-40.0,354.14402790831264,57.553973511069174,61.057899456918506
-195.9183673469388,91.83673469387759,-14.285714285714285,341.03927694840525,61.20214920891245,62.286986539154725
-195.9183673469388,91.83673469387759,11.42857142857143,329.4237898504755,65.12450051354186,36.18018840409702
-195.9183673469388,91.83673469387759,37.14285714285714,319.46005571432755,69.31226066924877,61.60277794690149
-195.9183673469388,91.83673469387759,62.85714285714286,311.30671379548517,73.74420911214517,62.28304746431975
-195.9183673469388,91.83673469387759,88.57142857142858,305.10893446583765,78.38506567943773,56.07931404604196
-195.9183673469388,91.83673469387759,114.28571428571428,300.9875457676037,83.18539817841976,57.543378550089905
-195.9183673469388,91.83673469387759,140.0,299.02841420695074,88.08357796252967,46.78443037878283
-195.9183673469388,91.83673469387759,165.71428571428572,299.2740070213815,93.00987213324977,39.271463062065536
-195.9183673469388,91.83673469387759,191.42857142857144,301.7189404623713,97.89212981410805,57.860886503206316
-195.9183673469388,91.83673469387759,217.14285714285717,306.3105544515726,102.66196967382011,61.092713768190364
-195.9183673469388,91.83673469387759,242.8571428571429,312.9543760402074,107.26019108291716,58.90250303343202
-195.9183673469388,91.83673469387759,268.57142857142856,321.52321250042445,111.64041522540441,53.54742944806332
-195.9183673469388,91.83673469387759,294.2857142857143,331.8679855756841,115.77055795549106,62.82679595404769
-195.9183673469388,91.83673469387759,320.0,343.82843469254215,119.63234480558926,21.76786982771713
-195.9183673469388,112.24489795918362,-40.0,357.1303787907534,57.85805556054413,62.75953036449356
-195.9183673469388,112.24489795918362,-14.285714285714285,344.13936620734677,61.48548711357447,64.64340887405808
-195.9183673469388,112.24489795918362,11.42857142857143,332.6321515902417,65.38047566912209,55.873505823467994
-195.9183673469388,112.24489795918362,37.14285714285714,322.76747380909455,69.53380756445303,59.66782591374003
-195.9183673469388,112.24489795918362,62.85714285714286,314.6998331843336,73.92425755549719,63.54677211568208
-195.9183673469388,112.24489795918362,88.57142857142858,308.5702137974145,78.51713554458162,54.06745495200717
-195.9183673469388,112.24489795918362,114.28571428571428,304.4956775708132,83.26427589120523,47.98701789235792
-195.9183673469388,112.24489795918362,140.0,302.5592627159628,88.10595069147372,32.690815935157566
-195.9183673469388,112.24489795918362,165.71428571428572,302.8019917879293,92.9747719966108,49.28310212411259
-195.9183673469388,112.24489795918362,191.42857142857144,305.21866585423516,97.80106966901556,25.712999029038247
-195.9183673469388,112.24489795918362,217.14285714285717,309.7584070215579,102.51873206329796,48.01207294700112
-195.9183673469388,112.24489795918362,242.8571428571429,316.32982223435533,107.07032962722427,39.17528231729795
-195.9183673469388,112.24489795918362,268.57142857142856,324.80962290039434,111.41059838051392,50.885327286613474
-195.9183673469388,112.24489795918362,294.2857142857143,335.0529432823502,115.50790159678203,64.55054187657835
-195.9183673469388,112.24489795918362,320.0,346.90359965735007,119.34384732759308,62.94362640386404
-195.9183673469388,132.65306122448976,-40.0,361.2467420795059,58.26735673847928,63.550005327669666
-195.9183673469388,132.65306122448976,-14.285714285714285,348.40924870247693,61.86628576461085,25.10925729576622
-195.9183673469388,132.65306122448976,11.42857142857143,337.04784449597594,65.72398374372005,63.98064010184574
-195.9183673469388,132.65306122448976,37.14285714285714,327.31627420116865,69.83069380188886,61.19912614991613
-195.9183673469388,132.65306122448976,62.85714285714286,319.36356431828204,74.16523013643973,62.822719630588544
-195.9183673469388,132.65306122448976,88.57142857142858,313.3251953654736,78.69371420416115,60.81625337701386
-195.9183673469388,132.65306122448976,114.28571428571428,309.31330211799605,83.36966091971426,54.92115201480726
-195.9183673469388,132.65306122448976,140.0,307.40723586645953,88.13583147036256,45.59604619671106
-195.9183673469388,132.65306122448976,165.71428571428572,307.6461399702055,92.92789055812278,48.5156908049349
-195.9183673469388,132.65306122448976,191.42857142857144,310.02505575141714,97.6793925737097,57.51599094819915
-195.9183673469388,132.65306122448976,217.14285714285717,314.4954243361312,102.32718317898063,57.05640613426493
-195.9183673469388,132.65306122448976,242.8571428571429,320.96987030350516,106.81615700451317,51.47588188376541
-195.9183673469388,132.65306122448976,268.57142857142856,329.3302177701379,111.10253639551271,58.37231697824997
-195.9183673469388,132.65306122448976,294.2857142857143,339.4371458900688,115.15531182993446,62.85234037363619
-195.9183673469388,132.65306122448976,320.0,351.1398705118191,118.95598310550714,58.88516693026955
-195.9183673469388,153.0612244897959,-40.0,366.4550397069386,58.769580479234506,63.784974140895194
-195.9183673469388,153.0612244897959,-14.285714285714285,353.8065743382693,62.33263550136117,61.48632188282767
-195.9183673469388,153.0612244897959,11.42857142857143,342.6241919989603,66.143869088862,58.54322887591118
-195.9183673469388,153.0612244897959,37.14285714285714,333.05559719135704,70.19294541080436,64.09355127082704
-195.9183673469388,153.0612244897959,62.85714285714286,325.24325308549345,74.45879410241346,62.68727509299106
-195.9183673469388,153.0612244897959,88.57142857142858,319.31609028417125,78.90855562951623,60.84633636828356
-195.9183673469388,153.0612244897959,114.28571428571428,315.3804152617844,83.49776758503842,56.77500630716768
-195.9183673469388,153.0612244897959,140.0,313.5112376400787,88.17213890336986,44.917558059286165
-195.9183673469388,153.0612244897959,165.71428571428572,313.7454938355675,92.87092288729278,31.66790689033374
-195.9183673469388,153.0612244897959,191.42857142857144,316.0785071105376,97.53145741747676,57.65521656075354
-195.9183673469388,153.0612244897959,217.14285714285717,320.46444325684564,102.0940685388724,59.9901159423554
-195.9183673469388,153.0612244897959,242.8571428571429,326.82066199401436,106.50641052859888,35.608120304585704
-195.9183673469388,153.0612244897959,268.57142857142856,335.0350426449199,110.72650503263787,64.14206287350149
-195.9183673469388,153.0612244897959,294.2857142857143,344.97487368437817,114.72414701280896,61.837003211587444
-195.9183673469388,153.0612244897959,320.0,356.4958570960032,118.48077703198553,63.48174645064389
-195.9183673469388,173.46938775510205,-40.0,372.70949792820886,59.3507960480265,55.84404727479346
-195.9183673469388,173.46938775510205,-14.285714285714285,360.2806763681129,62.871111901617944,56.970972537875795
-195.9183673469388,173.46938775510205,11.42857142857143,349.3056121252908,66.62762091232223,63.631342956605586
-195.9183673469388,173.46938775510205,37.14285714285714,339.9251454949679,70.60943120794293,45.157073582563136
-195.9183673469388,173.46938775510205,62.85714285714286,332.27435561132006,74.79569062288137,61.83830173059792
-195.9183673469388,173.46938775510205,88.57142857142858,326.47486769068865,79.15474457207046,60.549356990751875
-195.9183673469388,173.46938775510205,114.28571428571428,322.6265333942315,83.64441519493556,56.05613202503004
-195.9183673469388,173.46938775510205,140.0,320.7995789365964,88.21368024175877,41.277385183268635
-195.9183673469388,173.46938775510205,165.71428571428572,321.0285168351992,92.80573889166712,44.102400314169245
-195.9183673469388,173.46938775510205,191.42857142857144,323.3089797337986,97.36208011709583,56.85061789378577
-195.9183673469388,173.46938775510205,217.14285714285717,327.5981274537504,101.82686175473997,57.14158772691016
-195.9183673469388,173.46938775510205,242.8571428571429,333.81854176406887,106.15080746614926,61.43197025121714
-195.9183673469388,173.46938775510205,268.57142857142856,341.86481760977824,110.29398434642941,22.153601017656392
-195.9183673469388,173.46938775510205,294.2857142857143,351.61162835269874,114.2271595482683,55.48211402874742
-195.9183673469388,173.46938775510205,320.0,362.92198865031247,117.93179877250809,58.72186282555453
-195.9183673469388,193.8775510204082,-40.0,379.95845801996296,59.99638322913541,59.40939555686973
-195.9183673469388,193.8775510204082,-14.285714285714285,367.7746942616842,63.46771227424954,63.81296523760806
-195.9183673469388,193.8775510204082,11.42857142857143,357.0300696541322,67.16226937635842,58.58962096882547
-195.9183673469388,193.8775510204082,37.14285714285714,347.8579660073713,71.0686790674144,57.51290843999331
-195.9183673469388,193.8775510204082,62.85714285714286,340.38552755945483,75.16642733923214,60.07947191489639
-195.9183673469388,193.8775510204082,88.57142857142858,334.72660367628845,79.42522181298713,50.06525481517908
-195.9183673469388,193.8775510204082,114.28571428571428,330.97422864173217,83.80534888294608,55.28094581033699
-195.9183673469388,193.8775510204082,140.0,329.19360537669615,88.25924337171739,44.539069439719434
-195.9183673469388,193.8775510204082,165.71428571428572,329.41670964967483,92.73423919405604,26.814508542464885
-195.9183673469388,193.8775510204082,191.42857142857144,331.63949757458056,97.17616470701462,56.63281423789209
-195.9183673469388,193.8775510204082,217.14285714285717,335.8222641312129,101.53319856762097,57.82317325428343
-195.9183673469388,193.8775510204082,242.8571428571429,341.89308094856176,105.75932112624216,45.66761238607331
-195.9183673469388,193.8775510204082,268.57142857142856,349.75364686358506,109.81682097654759,48.45610169686768
-195.9183673469388,193.8775510204082,294.2857142857143,359.28651125229675,113.67758762712901,63.594570220695175
-195.9183673469388,193.8775510204082,320.0,370.3625653611714,117.32322195258497,63.985962029012896
-195.9183673469388,214.28571428571422,-40.0,388.1462044792466,60.69186482938389,61.70241160227822
-195.9183673469388,214.28571428571422,-14.285714285714285,376.2276863416786,64.1086695809789,63.87259902328057
-195.9183673469388,214.28571428571422,11.42857142857143,365.7314819207825,67.73515329224354,63.73246457637749
-195.9183673469388,214.28571428571422,37.14285714285714,356.7831424626487,71.55956538118643,59.38638059062321
-195.9183673469388,214.28571428571422,62.85714285714286,349.50157882714285,75.56185573528147,60.944328936401135
-195.9183673469388,214.28571428571422,88.57142857142858,343.992653176489,79.71321730193219,57.13854702642948
-195.9183673469388,214.28571428571422,114.28571428571428,340.34245438341475,83.97650213220828,54.449794983060215
-195.9183673469388,214.28571428571422,140.0,338.61109853583525,88.3076717929872,24.11656274094543
-195.9183673469388,214.28571428571422,165.71428571428572,338.82800183449325,92.65823760163391,47.89405157417999
-195.9183673469388,214.28571428571422,191.42857142857144,340.98944643824007,96.97840105525316,55.792086302298884
-195.9183673469388,214.28571428571422,217.14285714285717,345.0588925342329,101.22040911166175,52.60999780278712
-195.9183673469388,214.28571428571422,242.8571428571429,350.96997739299155,105.34157568055534,52.07440318663802
-195.9183673469388,214.28571428571422,268.57142857142856,358.6316490845649,109.30651839148464,62.89210775940138
-195.9183673469388,214.28571428571422,294.2857142857143,367.9345640172773,113.08837461771105,58.45595500584672
-195.9183673469388,214.28571428571422,320.0,378.75780658838585,116.66900390454065,63.127704002305826
-195.9183673469388,234.69387755102036,-40.0,397.21468822050014,61.423562647037336,63.25469988963696
-195.9183673469388,234.69387755102036,-14.285714285714285,385.5765870180352,64.781081433712,59.89599240220056
-195.9183673469388,234.69387755102036,11.42857142857143,375.3419099360417,68.33450149404067,56.95905320290004
-195.9183673469388,234.69387755102036,37.14285714285714,366.6282084509956,72.07182678054961,57.38470577999816
-195.9183673469388,234.69387755102036,62.85714285714286,359.54608340118176,75.97359172098763,34.37755351203388
-195.9183673469388,234.69387755102036,88.57142857142858,354.19341880653883,80.01256073421541,53.886100046477765
-195.9183673469388,234.69387755102036,114.28571428571428,350.6494242718655,84.15418289313929,54.788524894875216
-195.9183673469388,234.69387755102036,140.0,348.96920858165856,88.35791747618079,38.05148024434266
-195.9183673469388,234.69387755102036,165.71428571428572,349.1796776927594,92.57937819133024,43.165999215890764
-195.9183673469388,234.69387755102036,191.42857142857144,351.27743319023693,96.77305011466736,55.70188485644954
-195.9183673469388,234.69387755102036,217.14285714285717,355.229041328852,100.8951814628233,59.61947410782478
-195.9183673469388,234.69387755102036,242.8571428571429,360.9736244072425,104.9064035727135,57.60837883342948
-195.9183673469388,234.69387755102036,268.57142857142856,368.4273228352893,108.77370778012221,62.774957623968426
-195.9183673469388,234.69387755102036,294.2857142857143,377.48890829406884,112.47157522641147,63.33919950126652
-195.9183673469388,234.69387755102036,320.0,388.0457557274775,115.98224897227821,63.48422986100465
-195.9183673469388,255.1020408163265,-40.0,407.1050568100326,62.179053607623416,61.925468344758144
-195.9183673469388,255.1020408163265,-14.285714285714285,395.75790983714677,65.47333466416517,62.33370806337624
-195.9183673469388,255.1020408163265,11.42857142857143,385.79342671516116,68.9498130080622,54.719669729873814
-195.9183673469388,255.1020408163265,37.14285714285714,377.32116555287143,72.59638410723059,57.176749460409724
-195.9183673469388,255.1020408163265,62.85714285714286,370.44352448290994,76.39427379878764,60.0923595987252
-195.9183673469388,255.1020408163265,88.57142857142858,365.25059434319195,80.3178671530453,56.67523001644327
-195.9183673469388,255.1020408163265,114.28571428571428,361.8149215888995,84.33518264114174,54.45819862398593
-195.9183673469388,255.1020408163265,140.0,360.1867949832418,88.40907152873379,13.192409684439248
-195.9183673469388,255.1020408163265,165.71428571428572,360.3907130543323,92.49908714465066,46.10093330594214
-195.9183673469388,255.1020408163265,191.42857142857144,362.4235834088506,96.5638176333765,55.39904874968006
-195.9183673469388,255.1020408163265,217.14285714285717,366.2549529297945,100.56335947674475,57.12393373189967
-195.9183673469388,255.1020408163265,242.8571428571429,371.8292299697426,104.46157204016114,58.04306702037365
-195.9183673469388,255.1020408163265,268.57142857142856,379.0695331384062,108.22781066985935,56.75557285651425
-195.9183673469388,255.1020408163265,294.2857142857143,387.8825784012974,111.83796438532171,61.71857109093163
-195.9183673469388,255.1020408163265,320.0,398.16394522897207,115.27477580681935,38.10683402114786
-195.9183673469388,275.51020408163265,-40.0,417.75894039292257,62.94743536422833,46.39232805417951
-195.9183673469388,275.51020408163265,-14.285714285714285,406.70914447130986,66.17533901115218,50.67792511302513
-195.9183673469388,275.51020408163265,11.42857142857143,397.01961298472895,69.57205328891652,60.50728130989409
-195.9183673469388,275.51020408163265,37.14285714285714,388.7920613542604,73.12549821855043,60.469843508819345
-195.9183673469388,275.51020408163265,62.85714285714286,382.12093613048455,76.81767840964213,60.58933308684686
-195.9183673469388,275.51020408163265,88.57142857142858,377.08885115576214,80.62461430734099,53.630880532180115
-195.9183673469388,275.51020408163265,114.28571428571428,373.7620131611813,84.51681939766722,51.80237352322321
-195.9183673469388,275.51020408163265,140.0,372.18615272228686,88.46037594327908,41.96671975379378
-195.9183673469388,275.51020408163265,165.71428571428572,372.38349997513,92.4185542251495,46.41256883838981
-195.9183673469388,275.51020408163265,191.42857142857144,374.3512505773551,96.35380381654457,54.50972727765317
-195.9183673469388,275.51020408163265,217.14285714285717,378.06176154634255,100.22985728973657,57.37019709482615
-195.9183673469388,275.51020408163265,242.8571428571429,383.4644458848946,104.01365891802584,60.85670388354857
-195.9183673469388,275.51020408163265,268.57142857142856,390.48907276860746,107.67687403099255,60.4485976827239
-195.9183673469388,275.51020408163265,294.2857142857143,399.0499963978902,111.19683233500771,62.21229961063014
-195.9183673469388,275.51020408163265,320.0,409.0507698051886,114.55687603436927,62.173566696304604
-195.9183673469388,295.9183673469388,-40.0,429.1194746592862,63.71943108608666,61.303796736024594
-195.9183673469388,295.9183673469388,-14.285714285714285,418.36983573177105,66.87860324830093,53.96041512081345
-195.9183673469388,295.9183673469388,11.42857142857143,408.9566778378711,70.19370205872039,62.36133163257528
-195.9183673469388,295.9183673469388,37.14285714285714,400.9741366045188,73.65279310733519,60.14462893998028
-195.9183673469388,295.9183673469388,62.85714285714286,394.5090633722908,77.23872486459771,59.9287731375803
-195.9183673469388,295.9183673469388,88.57142857142858,389.6370014765241,80.929137731636,30.063918140878947
-195.9183673469388,295.9183673469388,114.28571428571428,386.4182109268964,84.69693115662659,41.147952417553746
-195.9183673469388,295.9183673469388,140.0,384.89417186008643,88.51122122293036,40.19123995953926
-195.9183673469388,295.9183673469388,165.71428571428572,385.0850065990261,92.33873640260501,27.805351899611466
-195.9183673469388,295.9183673469388,191.42857142857144,386.9881781947273,96.14551015362376,40.87460970206478
-195.9183673469388,295.9183673469388,217.14285714285717,390.57865635127564,99.89866279799226,58.128410203517085
-195.9183673469388,295.9183673469388,242.8571428571429,395.8105260240733,103.56804434865832,60.25904375434867
-195.9183673469388,295.9183673469388,268.57142857142856,402.6198047852727,107.12754213527231,56.73017959551597
-195.9183673469388,295.9183673469388,294.2857142857143,410.92808480170896,110.55593069250482,62.46616382211526
-195.9183673469388,295.9183673469388,320.0,420.6465541661571,113.83723168490226,62.07381771919409
-195.9183673469388,316.3265306122448,-40.0,441.1320675730033,64.48737200261917,61.35138859556949
-195.9183673469388,316.3265306122448,-14.285714285714285,430.6823620251938,67.5761946790604,60.742781929147505
-195.9183673469388,316.3265306122448,11.42857142857143,421.54423475782386,70.80869429468271,59.57436961803393
-195.9183673469388,316.3265306122448,37.14285714285714,413.80458641140063,74.17318607519641,50.42505064640711
-195.9183673469388,316.3265306122448,62.85714285714286,407.5431002878753,77.65340488788105,58.71573909230009
-195.9183673469388,316.3265306122448,88.57142857142858,402.8287110286305,81.22857085539167,50.69481689996238
-195.9183673469388,316.3265306122448,114.28571428571428,399.71616335259,84.87383669140434,52.33922453970183
-195.9183673469388,316.3265306122448,140.0,398.24301756745564,88.56113478998138,35.193126294595174
-195.9183673469388,316.3265306122448,165.71428571428572,398.42745866310844,92.26037594430547,45.57567604472381
-195.9183673469388,316.3265306122448,191.42857142857144,400.2671952231972,95.94088395210153,50.96980592584032
-195.9183673469388,316.3265306122448,217.14285714285717,403.7395996264658,99.57290084468241,57.72395924669914
-195.9183673469388,316.3265306122448,242.8571428571429,408.80306997480415,103.12898206006224,57.900344937692765
-195.9183673469388,316.3265306122448,268.57142857142856,415.3994279181209,106.58512478952296,60.481030423092214
-195.9183673469388,316.3265306122448,294.2857142857143,423.45704432465345,109.9215279094003,61.080853634426184
-195.9183673469388,316.3265306122448,320.0,432.89433010982344,113.12295085394736,50.96688724016118
-195.9183673469388,336.73469387755097,-40.0,453.74493364260354,65.24509644446614,48.4724104547118
-195.9183673469388,336.73469387755097,-14.285714285714285,443.59244890405654,68.26262176632846,61.8223626278411
-195.9183673469388,336.73469387755097,11.42857142857143,434.7257821002307,71.4122934597289,53.586244429613636
-195.9183673469388,336.73469387755097,37.14285714285714,427.2249986836073,74.68276126411267,60.36447853616519
-195.9183673469388,336.73469387755097,62.85714285714286,421.1630828519412,78.05866795769117,53.247510813788175
-195.9183673469388,336.73469387755097,88.57142857142858,416.60284947907616,81.52075396012368,52.175588541445464
-195.9183673469388,336.73469387755097,114.28571428571428,413.5939736147183,85.0462783400965,51.90022320586063
-195.9183673469388,336.73469387755097,140.0,412.1704317467844,88.60976436826978,41.06314592251084
-195.9183673469388,336.73469387755097,165.71428571428572,412.3486432399662,92.1840264092139,43.89373182970981
-195.9183673469388,336.73469387755097,191.42857142857144,414.12654024699134,95.74138380155534,53.10753673483096
-195.9183673469388,336.73469387755097,217.14285714285717,417.48368599459883,99.25493048041203,57.17263789073081
-195.9183673469388,336.73469387755097,242.8571428571429,422.3824259908579,102.69971768735891,36.103078352650414
-195.9183673469388,336.73469387755097,268.57142857142856,428.76992487790005,106.05372482150405,57.45932501942163
-195.9183673469388,336.73469387755097,294.2857142857143,436.5808426320026,109.29853470516352,59.84082015158464
-195.9183673469388,336.73469387755097,320.0,445.74035581976494,112.41968192877498,60.31568248932388
-195.9183673469388,357.1428571428571,-40.0,466.9094289336588,65.9877991012012,46.61458604709508
-195.9183673469388,357.1428571428571,-14.285714285714285,457.04946203394957,68.93367354172403,34.674841435595766
-195.9183673469388,357.1428571428571,11.42857142857143,448.4489442996626,72.00092913250629,55.04263404459604
-195.9183673469388,357.1428571428571,37.14285714285714,441.1815380555185,75.178615619494,57.70779432856258
-195.9183673469388,357.1428571428571,62.85714285714286,435.31401583015423,78.45228682934021,55.23334227710683
-195.9183673469388,357.1428571428571,88.57142857142858,430.9035671874978,81.80413024867906,38.67821630881607
-195.9183673469388,357.1428571428571,114.28571428571428,427.99523949599836,85.21335781082335,51.29067853353818
-195.9183673469388,357.1428571428571,140.0,426.6197543798873,88.6568594876011,40.6964007895544
-195.9183673469388,357.1428571428571,165.71428571428572,426.79193244796176,92.11008160871212,41.95233003961733
-195.9183673469388,357.1428571428571,191.42857142857144,428.50990812088304,95.54805324691813,52.345281687733305
-195.9183673469388,357.1428571428571,217.14285714285717,431.75522937477143,98.94645656377799,55.73203049736708
-195.9183673469388,357.1428571428571,242.8571428571429,436.49383020467445,102.28262857813115,58.71838111971461
-195.9183673469388,357.1428571428571,268.57142857142856,442.6777592116242,105.53639491840002,40.231479380099564
-195.9183673469388,357.1428571428571,294.2857142857143,450.247467704255,108.69066685474316,60.93291918576752
-195.9183673469388,357.1428571428571,320.0,459.13441912707367,111.73177260426857,56.44613086444073
-195.9183673469388,377.55102040816325,-40.0,480.58022337972545,66.71185695067611,47.699648183401074
-195.9183673469388,377.55102040816325,-14.285714285714285,471.0065254559369,69.58624144432915,59.85694165881473
-195.9183673469388,377.55102040816325,11.42857142857143,462.6655292109337,72.57202284759909,60.496059383879654
-195.9183673469388,377.55102040816325,37.14285714285714,455.62493983273606,75.6586982123598,55.19838572989257
-195.9183673469388,377.55102040816325,62.85714285714286,449.94580635308427,78.83272034640281,50.95659617023969
-195.9183673469388,377.55102040816325,88.57142857142858,445.680177359799,82.07764156667875,54.949398232313996
-195.9183673469388,377.55102040816325,114.28571428571428,442.8688985555301,85.37447247314223,49.84090718445942
-195.9183673469388,377.55102040816325,140.0,441.53975030987505,88.70225322294857,38.44106702384813
-195.9183673469388,377.55102040816325,165.71428571428572,441.70611256718763,92.03880421825279,43.94510144739911
-195.9183673469388,377.55102040816325,191.42857142857144,443.3663018704952,95.36159404555075,41.19303942143341
-195.9183673469388,377.55102040816325,217.14285714285717,446.5036554934494,98.64864209504323,48.667320973425745
-195.9183673469388,377.55102040816325,242.8571428571429,451.0873530518215,101.87936705451361,50.71443660582546
-195.9183673469388,377.55102040816325,268.57142857142856,457.07388328056567,105.03530216306763,38.33149574887755
-195.9183673469388,377.55102040816325,294.2857142857143,464.40899910600956,108.10062101919542,57.69714993150184
-195.9183673469388,377.55102040816325,320.0,473.02996850485783,111.0624477730407,61.00296416274148
-195.9183673469388,397.9591836734694,-40.0,494.7153460688126,67.41465083477449,61.15525632949738
-195.9183673469388,397.9591836734694,-14.285714285714285,485.4205079663944,70.21814139213215,59.809963692302944
-195.9183673469388,397.9591836734694,11.42857142857143,477.33145135462377,73.12381811642874,38.762142965452085
-195.9183673469388,397.9591836734694,37.14285714285714,470.5103700556052,76.12165648444493,59.02979348739862
-195.9183673469388,397.9591836734694,62.85714285714286,465.0130656089197,79.19898427408181,51.566107665390376
-195.9183673469388,397.9591836734694,88.57142857142858,460.88690914772155,82.34063142972911,48.79342090292948
-195.9183673469388,397.9591836734694,114.28571428571428,458.16894683082427,85.52925660064129,48.98577175625691
-195.9183673469388,397.9591836734694,140.0,456.8843109978554,88.74584541904836,37.37335568024609
-195.9183673469388,397.9591836734694,165.71428571428572,457.0450879415457,91.97035207464137,20.396790290282528
-195.9183673469388,397.9591836734694,191.42857142857144,458.6497576218669,95.18243383040657,51.5113906359182
-195.9183673469388,397.9591836734694,217.14285714285717,461.6832646970119,98.36221293121389,42.8693785187926
-195.9183673469388,397.9591836734694,242.8571428571429,466.1177132609067,101.49099574139879,52.16702984140851
-195.9183673469388,397.9591836734694,268.57142857142856,471.9136121256246,104.55188612686335,57.90534647484708
-195.9183673469388,397.9591836734694,294.2857142857143,479.02154542663715,107.53024718770129,60.270352416844695
-195.9183673469388,397.9591836734694,320.0,487.3841130319956,110.41398816758988,59.90726325656194
-195.9183673469388,418.36734693877554,-40.0,509.2761357299103,68.09439509133706,57.218441599848134
-195.9183673469388,418.36734693877554,-14.285714285714285,500.25191488125,70.82794724136483,24.600477903473404
-195.9183673469388,418.36734693877554,11.42857142857143,492.40656295414726,73.65522417729429,29.082619817972134
-195.9183673469388,418.36734693877554,37.14285714285714,485.79719751956947,76.56669713299284,48.36033663236688
-195.9183673469388,418.36734693877554,62.85714285714286,480.4748276184825,79.55053596496053,53.62981104392173
-195.9183673469388,418.36734693877554,88.57142857142858,476.48258290492123,82.59275931457965,53.12690813987744
-195.9183673469388,418.36734693877554,114.28571428571428,473.85408368829286,85.67752979404108,48.90931194498648
-195.9183673469388,418.36734693877554,140.0,472.61208450905065,88.78758801340554,36.063416966831554
-195.9183673469388,418.36734693877554,165.71428571428572,472.76751284272933,91.90480119333807,0.7728238964437818
-195.9183673469388,418.36734693877554,191.42857142857144,474.31899493337,95.01078557709057,50.529942602890884
-195.9183673469388,418.36734693877554,217.14285714285717,477.2529158520628,98.08755052222777,48.64005096801578
-195.9183673469388,418.36734693877554,242.8571428571429,481.5440077537897,101.11810872777947,57.096677572274395
-195.9183673469388,418.36734693877554,268.57142857142856,487.1564082483771,104.08700238349377,32.138134247170086
-195.9183673469388,418.36734693877554,294.2857142857143,494.04508880357145,106.98070780091746,59.94143737307333
-195.9183673469388,418.36734693877554,320.0,502.15752749908074,109.78789828649882,50.43189611440887
-195.9183673469388,438.77551020408157,-40.0,524.2271239336264,68.74998245813877,59.883453781715694
-195.9183673469388,438.77551020408157,-14.285714285714285,515.4647159467747,71.4148416946369,57.12072761961545
-195.9183673469388,438.77551020408157,11.42857142857143,507.8544262719862,74.1656782547125,58.85526991621275
-195.9183673469388,438.77551020408157,37.14285714285714,501.4487133911097,76.99346513839475,53.19805239382938
-195.9183673469388,438.77551020408157,62.85714285714286,496.2942222298605,79.8871752124431,41.50359834951044
-195.9183673469388,438.77551020408157,88.57142857142858,492.430245674935,82.83392763576687,37.65682092284968
-195.9183673469388,438.77551020408157,114.28571428571428,489.88732140340534,85.81925330297317,43.71001046872265
-195.9183673469388,438.77551020408157,140.0,488.68607251253,88.82747264303381,37.223872615876985
-195.9183673469388,438.77551020408157,165.71428571428572,488.8363900562559,91.84216521137584,42.155823610724696
-195.9183673469388,438.77551020408157,191.42857142857144,490.3370310289995,94.84669801829635,44.66949249687153
-195.9183673469388,438.77551020408157,217.14285714285717,493.1756692427434,97.82477105977148,49.871252119803145
-195.9183673469388,438.77551020408157,242.8571428571429,497.32939431257586,100.76093596728727,56.81389154558563
-195.9183673469388,438.77551020408157,268.57142857142856,502.76561252853315,103.64104766408117,52.961519674843125
-195.9183673469388,438.77551020408157,294.2857142857143,509.4432694762593,106.45261848646999,41.96803370502819
-195.9183673469388,438.77551020408157,320.0,517.3142927348149,109.18505727203467,46.97897295710169
-195.9183673469388,459.1836734693877,-40.0,539.5358734756942,69.38084767626684,35.237975189924256
-195.9183673469388,459.1836734693877,-14.285714285714285,531.0261337124075,71.97848712341627,33.77340656084943
-195.9183673469388,459.1836734693877,11.42857142857143,523.6420529173596,74.65502785387491,56.64752643356778
-195.9183673469388,459.1836734693877,37.14285714285714,517.4318249403084,77.40194165476636,54.937461125676855
-195.9183673469388,459.1836734693877,62.85714285714286,512.4381292587435,80.20896143328653,55.41059301873055
-195.9183673469388,459.1836734693877,88.57142857142858,508.69679393026985,83.06422124486666,44.06807346304865
-195.9183673469388,459.1836734693877,114.28571428571428,506.23558643309735,85.95449403801923,42.02894006461364
-195.9183673469388,459.1836734693877,140.0,505.0732211938981,88.86552046042716,37.10293047857021
-195.9183673469388,459.1836734693877,165.71428571428572,505.21866309815846,91.78241136973044,41.443387329293486
-195.9183673469388,459.1836734693877,191.42857142857144,506.6707859130942,94.69009722311323,45.933264491287716
-195.9183673469388,459.1836734693877,217.14285714285717,509.41841548228945,97.57379115795061,1.4083967160703736
-195.9183673469388,459.1836734693877,242.8571428571429,513.4407538818595,100.41943067088374,50.037818710823956
-195.9183673469388,459.1836734693877,268.57142857142856,518.7081476520777,103.21406577119365,53.7163330001193
-195.9183673469388,459.1836734693877,294.2857142857143,525.1831357860981,105.94616867967954,48.48234212520373
-195.9183673469388,459.1836734693877,320.0,532.8216950980697,108.60585005782406,56.91849518488878
-195.9183673469388,479.59183673469386,-40.0,555.1727896091141,69.98685065518848,49.48136277758132
-195.9183673469388,479.59183673469386,-14.285714285714285,546.906410860883,72.51891642738481,57.23137076137896
-195.9183673469388,479.59183673469386,11.42857142857143,539.7396290237472,75.12343257932352,57.27358676520239
-195.9183673469388,479.59183673469386,37.14285714285714,533.7167423046079,77.79235981248314,49.64451888903475
-195.9183673469388,479.59183673469386,62.85714285714286,528.8768324226219,80.51614604379559,53.249847602553544
-195.9183673469388,479.59183673469386,88.57142857142858,525.2526018118527,83.28385840782477,48.465292947005935
-195.9183673469388,479.59183673469386,114.28571428571428,522.8693302599105,86.08339556273872,48.065769892745465
-195.9183673469388,479.59183673469386,140.0,521.7440237533782,88.9017739454818,32.00521475822882
-195.9183673469388,479.59183673469386,165.71428571428572,521.8848197618664,91.72547336742224,25.694615500540582
-195.9183673469388,479.59183673469386,191.42857142857144,523.2906963180006,94.54082014332127,45.329414710953614
-195.9183673469388,479.59183673469386,217.14285714285717,525.9515087797275,97.3343811535249,51.10436644042637
-195.9183673469388,479.59183673469386,242.8571428571429,529.8483512307625,100.09334081002861,52.32323922381564
-195.9183673469388,479.59183673469386,268.57142857142856,534.9542129900792,102.80583512548267,32.666868668317505
-195.9183673469388,479.59183673469386,294.2857142857143,541.2348784671074,105.46122251354348,58.14562678738853
-195.9183673469388,479.59183673469386,320.0,548.6500034834281,108.05027850558629,45.252856222159316
-195.9183673469388,500.0,-40.0,571.1109175399099,70.56817846041797,56.96067920587751
-195.9183673469388,500.0,-14.285714285714285,563.0785700518579,73.03644266280801,31.58808790015567
-195.9183673469388,500.0,11.42857142857143,556.1202396511067,75.57128382591674,57.16971274140954
-195.9183673469388,500.0,37.14285714285714,550.2766711638386,78.16513660359273,56.4822399922637
-195.9183673469388,500.0,62.85714285714286,545.5836853172007,80.80911826762934,52.47536816286322
-195.9183673469388,500.0,88.57142857142858,542.0711664726624,83.49315181115387,43.59145704381486
-195.9183673469388,500.0,114.28571428571428,539.7621608980751,86.20615513740002,46.94933723956253
-195.9183673469388,500.0,140.0,538.6721453103713,88.93629044158986,35.215868652509585
-195.9183673469388,500.0,165.71428571428572,538.8085178509969,91.67126151206932,30.874831816127188
-195.9183673469388,500.0,191.42857142857144,540.1703496711848,94.39864118545184,22.679920632522148
-195.9183673469388,500.0,217.14285714285717,542.7484163022348,97.10620756435276,41.138690525609796
-195.9183673469388,500.0,242.8571428571429,546.5255063698945,99.78226652907281,53.853383926728114
-195.9183673469388,500.0,268.57142857142856,551.4769839320107,102.41593975493524,54.694514651486315
-195.9183673469388,500.0,294.2857142857143,557.5715626538145,104.99740156054237,57.967081859348006
-195.9183673469388,500.0,320.0,564.7722373959947,107.51805369128611,58.752416759770114
-175.51020408163265,-500.0,-40.0,643.821304830077,72.83568995340916,56.899306505941354
-175.51020408163265,-500.0,-14.285714285714285,636.7068936892942,75.04714936184081,56.975182744771786
-175.51020408163265,-500.0,11.42857142857143,630.5615857070818,77.3051361272176,46.076143343314484
-175.51020408163265,-500.0,37.14285714285714,625.4139487147536,79.60391649779652,51.50152697953864
-175.51020408163265,-500.0,62.85714285714286,621.2887815695076,81.93702525727672,40.876895389885945
-175.51020408163265,-500.0,88.57142857142858,618.2065528129397,84.29735000524705,46.47173861522785
-175.51020408163265,-500.0,114.28571428571428,616.182913392756,86.67724428995031,37.87487277482857
-175.51020408163265,-500.0,140.0,615.2283092910329,89.06866602462289,33.35629370482535
-175.51020408163265,-500.0,165.71428571428572,615.347715790522,91.46333547216483,32.311585792974796
-175.51020408163265,-500.0,191.42857142857144,616.5405088748955,93.85290532073776,45.530998599686605
-175.51020408163265,-500.0,217.14285714285717,618.8004814303307,96.22913424300692,43.085431883892184
-175.51020408163265,-500.0,242.8571428571429,622.1160032764748,98.58405500060388,48.82488995272812
-175.51020408163265,-500.0,268.57142857142856,626.4703155190773,100.91012867279615,49.191712323081305
-175.51020408163265,-500.0,294.2857142857143,631.8419421817783,103.20037787668232,41.00651287146819
-175.51020408163265,-500.0,320.0,638.2051962755419,105.4484937171759,53.97309978374271
-175.51020408163265,-479.59183673469386,-40.0,626.4769637338068,72.34508719406861,51.69723052228307
-175.51020408163265,-479.59183673469386,-14.285714285714285,619.1632918766235,74.6131383690592,56.19352801226909
-175.51020408163265,-479.59183673469386,11.42857142857143,612.8420896980364,76.93167775183447,33.46390967576819
-175.51020408163265,-479.59183673469386,37.14285714285714,607.5443364751309,79.29458285939414,43.22138973489451
-175.51020408163265,-479.59183673469386,62.85714285714286,603.2969945558737,81.69489450980215,53.02619298857703
-175.51020408163265,-479.59183673469386,88.57142857142858,600.122367085984,84.12490954152842,50.1304373859429
-175.51020408163265,-479.59183673469386,114.28571428571428,598.0375375285494,86.57630839778608,45.50581181628715
-175.51020408163265,-479.59183673469386,140.0,597.0539222625788,89.04031350369965,25.808947497782558
-175.51020408163265,-479.59183673469386,165.71428571428572,597.1769627712038,91.50787161273131,28.29168657893629
-175.51020408163265,-479.59183673469386,191.42857142857144,598.4059764238169,93.96985101843454,29.285129493610032
-175.51020408163265,-479.59183673469386,217.14285714285717,600.7341752842398,96.41724305667864,51.09008054756294
-175.51020408163265,-479.59183673469386,242.8571428571429,604.1488517482437,98.84135689120453,51.39612844744032
-175.51020408163265,-479.59183673469386,268.57142857142856,608.6317193201476,101.23399725058795,55.14385669224684
-175.51020408163265,-479.59183673469386,294.2857142857143,614.1593876479202,103.58761646013974,37.87968668363717
-175.51020408163265,-479.59183673469386,320.0,620.7039439935351,105.89543452906796,38.55342146100581
-175.51020408163265,-459.18367346938777,-40.0,609.3224810237047,71.83094828044266,57.720864018683656
-175.51020408163265,-459.18367346938777,-14.285714285714285,601.8003670647354,74.15771000093017,51.621462486887815
-175.51020408163265,-459.18367346938777,11.42857142857143,595.2948233415183,76.53933127987898,53.18439659189136
-175.51020408163265,-459.18367346938777,37.14285714285714,589.8394871274393,78.96927622636174,48.01161291604547
-175.51020408163265,-459.18367346938777,62.85714285714286,585.4637165802022,81.44004991078717,49.309137127966416
-175.51020408163265,-459.18367346938777,88.57142857142858,582.1918543475493,83.9433000433077,46.605454233718184
-175.51020408163265,-459.18367346938777,114.28571428571428,580.0425812687932,86.46996090612309,36.58080360990003
-175.51020408163265,-459.18367346938777,140.0,579.028398164445,89.0104349236625,34.68063388922995
-175.51020408163265,-459.18367346938777,165.71428571428572,579.1552681763269,91.5548037131205,39.225396077123264
-175.51020408163265,-459.18367346938777,191.42857142857144,580.4224430632358,94.09305749206248,47.61881022126174
-175.51020408163265,-459.18367346938777,217.14285714285717,582.8224851069056,96.61532979431232,45.76297646239601
-175.51020408163265,-459.18367346938777,242.8571428571429,586.3414831482374,99.11212387776182,54.110576480850064
-175.51020408163265,-459.18367346938777,268.57142857142856,590.9594483163395,101.57451809394719,55.62536414466757
-175.51020408163265,-459.18367346938777,294.2857142857143,596.6508637619003,103.99433967999437,55.246098023598115
-175.51020408163265,-459.18367346938777,320.0,603.3853543805012,106.36429957061777,57.81658408849151
-175.51020408163265,-438.7755102040816,-40.0,592.3743511736166,71.29212817723123,56.28453642859492
-175.51020408163265,-438.7755102040816,-14.285714285714285,584.6342171364336,73.67974577160267,46.730379595495066
-175.51020408163265,-438.7755102040816,11.42857142857143,577.9354745511731,76.12705037620289,56.00964706244512
-175.51020408163265,-438.7755102040816,37.14285714285714,572.3146919503646,78.62706824741345,46.61257687569478
-175.51020408163265,-438.7755102040816,62.85714285714286,567.8038829379238,81.17172420821947,50.437385645423305
-175.51020408163265,-438.7755102040816,88.57142857142858,564.4296602023305,83.75195266914479,36.606035303435604
-175.51020408163265,-438.7755102040816,114.28571428571428,562.2124884173642,86.3578600015645,45.94477470633552
-175.51020408163265,-438.7755102040816,140.0,561.1660823039497,88.97893307938936,23.152395968233726
-175.51020408163265,-438.7755102040816,165.71428571428572,561.2969897513021,91.60428422810219,37.713611425322156
-175.51020408163265,-438.7755102040816,191.42857142857144,562.6043889439322,94.22291894368004,45.9608031922345
-175.51020408163265,-438.7755102040816,217.14285714285717,565.080113960551,96.8240102093562,36.223249770391014
-175.51020408163265,-438.7755102040816,242.8571428571429,568.7089070059964,99.39716248863907,54.36895237880492
-175.51020408163265,-438.7755102040816,268.57142857142856,573.468879366468,101.93264964285578,49.561901491481954
-175.51020408163265,-438.7755102040816,294.2857142857143,579.3321493541524,104.42161390168633,52.72784446398926
-175.51020408163265,-438.7755102040816,320.0,586.2656155091847,106.85621710684555,58.15609502784539
-175.51020408163265,-418.36734693877554,-40.0,575.6508006001296,70.72750924707209,54.993590531234474
-175.51020408163265,-418.36734693877554,-14.285714285714285,567.6826931921895,73.17813641624284,36.24607155367155
-175.51020408163265,-418.36734693877554,11.42857142857143,560.7814949228414,75.6937840166446,57.787495768449226
-175.51020408163265,-418.36734693877554,37.14285714285714,554.9870078888764,78.26701696508249,55.9774789560105
-175.51020408163265,-418.36734693877554,62.85714285714286,550.3341909990606,80.88913285699067,54.68328412471444
-175.51020408163265,-418.36734693877554,88.57142857142858,546.8521862618136,83.5502824844947,47.84657424854057
-175.51020408163265,-418.36734693877554,114.28571428571428,544.5634530848098,86.23965292936809,45.996886897806526
-175.51020408163265,-418.36734693877554,140.0,543.4830671065753,88.94570748517627,21.01974491114956
-175.51020408163265,-418.36734693877554,165.71428571428572,543.6182327765326,91.65647072455953,38.019965931680616
-175.51020408163265,-418.36734693877554,191.42857142857144,544.9680456340376,94.35984193584086,47.48019279275897
-175.51020408163265,-418.36734693877554,217.14285714285717,547.523522322901,97.04391679830366,49.390084289528076
-175.51020408163265,-418.36734693877554,242.8571428571429,551.2678960461619,99.69729616987698,41.27818300660457
-175.51020408163265,-418.36734693877554,268.57142857142856,556.177155144869,102.30936241419585,56.739399750532094
-175.51020408163265,-418.36734693877554,294.2857142857143,562.2207854379888,104.8705075012307,56.84762594216834
-175.51020408163265,-418.36734693877554,320.0,569.3626649435053,107.37230247777299,58.555090650119375
-175.51020408163265,-397.9591836734694,-40.0,559.1719796185284,70.13603380715058,35.65992850229503
-175.51020408163265,-397.9591836734694,-14.285714285714285,550.9656057403868,72.65180937875256,59.10340518209564
-175.51020408163265,-397.9591836734694,11.42857142857143,543.8523178279472,75.23849882833422,57.82347227950754
-175.51020408163265,-397.9591836734694,37.14285714285714,537.8754851119184,77.88818417444239,57.01415606596459
-175.51020408163265,-397.9591836734694,62.85714285714286,533.0733348625913,80.59148674846159,48.753172011081546
-175.51020408163265,-397.9591836734694,88.57142857142858,529.4778297325196,83.33769700642684,51.720363584150064
-175.51020408163265,-397.9591836734694,114.28571428571428,527.1136623106876,86.11498077568321,30.36050438316031
-175.51020408163265,-397.9591836734694,140.0,525.9974361063977,88.91065568743231,36.04867176898401
-175.51020408163265,-397.9591836734694,165.71428571428572,526.1370938890492,91.71152381340374,40.90927454619977
-175.51020408163265,-397.9591836734694,191.42857142857144,527.5316382181416,94.5042398045978,48.15121597946309
-175.51020408163265,-397.9591836734694,217.14285714285717,530.1711667525971,97.27568936509647,51.57118083339747
-175.51020408163265,-397.9591836734694,242.8571428571429,534.0372194614303,100.01335156381158,55.215201595595445
-175.51020408163265,-397.9591836734694,268.57142857142856,539.1034098055524,102.7056205611643,56.5931045928815
-175.51020408163265,-397.9591836734694,294.2857142857143,545.3362908677935,105.34206738737453,50.59598662875044
-175.51020408163265,-397.9591836734694,320.0,552.696392959556,107.91362946831842,51.545138558610674
-175.51020408163265,-377.55102040816325,-40.0,542.9601712880647,69.51674698400977,57.34152359720519
-175.51020408163265,-377.55102040816325,-14.285714285714285,534.5049518232098,72.09976568359089,58.44074462653164
-175.51020408163265,-377.55102040816325,11.42857142857143,527.16960119253,74.76020965365348,50.95878277706299
-175.51020408163265,-377.55102040816325,37.14285714285714,521.0014225499217,77.48965965265619,56.03149771962343
-175.51020408163265,-377.55102040816325,62.85714285714286,516.0422707067561,80.27801032639896,47.99500782149429
-175.51020408163265,-377.55102040816325,88.57142857142858,512.327255758387,83.1136085743758,52.96627987662764
-175.51020408163265,-377.55102040816325,114.28571428571428,509.8835727979929,85.98348548095996,46.9039110950714
-175.51020408163265,-377.55102040816325,140.0,508.72954268959506,88.87367520261748,22.893777947255156
-175.51020408163265,-377.55102040816325,165.71428571428572,508.87393957705746,91.76960409904373,36.42387213920307
-175.51020408163265,-377.55102040816325,191.42857142857144,510.31566126837293,94.65652448540959,49.26538205044775
-175.51020408163265,-377.55102040816325,217.14285714285717,513.0437709108948,97.51996140859406,53.71916996937906
-175.51020408163265,-377.55102040816325,242.8571428571429,517.0379063325593,100.34613906309622,55.485377477186134
-175.51020408163265,-377.55102040816325,268.57142857142856,522.2690219404496,103.12235624771495,57.186684907480306
-175.51020408163265,-377.55102040816325,294.2857142857143,528.7004018838111,105.83728702350808,58.90093136768358
-175.51020408163265,-377.55102040816325,320.0,536.2888658224824,108.48119206804219,45.22995871006078
-175.51020408163265,-357.1428571428571,-40.0,527.0400161994835,68.86885235317469,48.48197750307469
-175.51020408163265,-357.1428571428571,-14.285714285714285,518.3251629951214,71.52112862370183,59.5387560980059
-175.51020408163265,-357.1428571428571,11.42857142857143,510.757495776497,74.25802060773337,43.32130923750406
-175.51020408163265,-357.1428571428571,37.14285714285714,504.3886530934547,77.07059426235253,56.76411127914555
-175.51020408163265,-357.1428571428571,62.85714285714286,499.2645152888119,79.947966732472,56.290378792107916
-175.51020408163265,-357.1428571428571,88.57142857142858,495.4237055928056,82.87745175581296,53.14906066648818
-175.51020408163265,-357.1428571428571,114.28571428571428,492.8962252641356,85.8448198064146,46.515913567604706
-175.51020408163265,-357.1428571428571,140.0,491.7023273033715,88.83466628503434,25.730786712124818
-175.51020408163265,-357.1428571428571,165.71428571428572,491.8517230335399,91.8308678253652,36.65288866844738
